ply
format ascii 1.0
element vertex 1115
property float x
property float y
property float z
property uchar red
property uchar green
property uchar blue
end_header
2.333333 5.000000 -102.400002 138 137 132 
3.333333 5.000000 -102.400002 137 136 132 
3.600000 5.000000 -102.400002 163 162 158 
3.666667 5.000000 -102.400002 241 240 236 
3.733333 5.000000 -102.400002 255 255 251 
3.800000 5.000000 -102.400002 255 255 251 
3.866667 5.000000 -102.400002 255 255 251 
3.933333 5.000000 -102.400002 255 255 251 
4.000000 5.000000 -102.400002 255 255 251 
4.066667 5.000000 -102.400002 255 255 251 
4.133333 5.000000 -102.400002 255 255 251 
4.200000 5.000000 -102.400002 255 255 251 
4.266667 5.000000 -102.400002 255 255 253 
4.333333 5.000000 -102.400002 255 255 253 
4.400000 5.000000 -102.400002 255 255 253 
4.466667 5.000000 -102.400002 255 255 253 
4.533333 5.000000 -102.400002 255 255 253 
4.600000 5.000000 -102.400002 255 255 253 
4.666667 5.000000 -102.400002 255 255 253 
17.133333 5.000000 -102.400002 232 246 255 
17.200001 5.000000 -102.400002 209 225 238 
17.266666 5.000000 -102.400002 187 204 220 
-13.000000 4.933333 -102.400002 83 97 110 
-2.800000 4.933333 -102.400002 13 12 8 
4.733333 4.933333 -102.400002 130 129 127 
4.800000 4.933333 -102.400002 143 142 140 
4.866667 4.933333 -102.400002 124 123 121 
4.933333 4.933333 -102.400002 127 126 124 
5.000000 4.933333 -102.400002 150 149 147 
5.066667 4.933333 -102.400002 231 230 228 
5.133333 4.933333 -102.400002 254 253 251 
5.266667 4.933333 -102.400002 238 237 235 
5.333333 4.933333 -102.400002 255 255 253 
17.266666 4.933333 -102.400002 230 246 255 
17.333334 4.933333 -102.400002 201 220 235 
-13.000000 4.866667 -102.400002 3 17 28 
-2.800000 4.866667 -102.400002 42 41 37 
5.200000 4.866667 -102.400002 138 137 135 
5.400000 4.866667 -102.400002 135 134 132 
5.466667 4.866667 -102.400002 135 134 132 
5.533333 4.866667 -102.400002 135 134 132 
5.600000 4.866667 -102.400002 135 134 132 
5.666667 4.866667 -102.400002 135 134 132 
5.733333 4.866667 -102.400002 135 134 132 
5.800000 4.866667 -102.400002 135 134 132 
5.866667 4.866667 -102.400002 135 134 132 
5.933333 4.866667 -102.400002 135 134 132 
6.000000 4.866667 -102.400002 135 134 132 
6.066667 4.866667 -102.400002 135 134 132 
6.133333 4.866667 -102.400002 135 134 132 
6.200000 4.866667 -102.400002 135 134 132 
6.266667 4.866667 -102.400002 135 134 132 
6.333333 4.866667 -102.400002 135 134 132 
6.400000 4.866667 -102.400002 140 139 137 
6.466667 4.866667 -102.400002 223 222 220 
6.600000 4.866667 -102.400002 255 255 253 
6.733333 4.866667 -102.400002 244 243 241 
6.800000 4.866667 -102.400002 244 243 241 
6.866667 4.866667 -102.400002 255 255 253 
7.600000 4.866667 -102.400002 253 252 250 
7.666667 4.866667 -102.400002 254 253 251 
17.333334 4.866667 -102.400002 233 249 255 
17.400000 4.866667 -102.400002 195 214 229 
-13.000000 4.800000 -102.400002 0 2 14 
-2.800000 4.800000 -102.400002 86 85 81 
6.533333 4.800000 -102.400002 126 125 123 
6.666667 4.800000 -102.400002 133 132 130 
6.933333 4.800000 -102.400002 134 133 131 
7.000000 4.800000 -102.400002 134 133 131 
7.066667 4.800000 -102.400002 134 133 131 
7.133333 4.800000 -102.400002 134 133 131 
7.200000 4.800000 -102.400002 134 133 131 
7.266667 4.800000 -102.400002 134 133 131 
7.333333 4.800000 -102.400002 134 133 131 
7.400000 4.800000 -102.400002 134 133 131 
7.466667 4.800000 -102.400002 134 133 131 
7.533333 4.800000 -102.400002 138 137 135 
7.733333 4.800000 -102.400002 127 126 124 
7.800000 4.800000 -102.400002 163 162 160 
7.866667 4.800000 -102.400002 225 224 222 
7.933333 4.800000 -102.400002 255 255 253 
8.066667 4.800000 -102.400002 254 253 251 
8.133333 4.800000 -102.400002 254 253 251 
8.200000 4.800000 -102.400002 254 253 251 
1.117117 0.648649 -13.837838 254 253 251 
1.126126 0.648649 -13.837838 254 253 251 
1.135135 0.648649 -13.837838 254 253 251 
1.144144 0.648649 -13.837838 254 253 251 
1.153153 0.648649 -13.837838 254 253 251 
8.600000 4.800000 -102.400002 254 253 251 
8.666667 4.800000 -102.400002 254 253 251 
8.733334 4.800000 -102.400002 254 253 251 
8.800000 4.800000 -102.400002 254 253 251 
8.866667 4.800000 -102.400002 254 253 251 
8.933333 4.800000 -102.400002 254 253 251 
9.000000 4.800000 -102.400002 254 253 251 
9.066667 4.800000 -102.400002 255 255 253 
17.400000 4.800000 -102.400002 244 255 255 
17.466667 4.800000 -102.400002 224 240 255 
17.533333 4.800000 -102.400002 189 208 225 
-13.066667 4.733333 -102.400002 189 208 225 
-2.800000 4.733333 -102.400002 119 118 114 
6.533333 4.733333 -102.400002 136 135 133 
8.000000 4.733333 -102.400002 132 131 129 
9.133333 4.733333 -102.400002 129 128 126 
9.200000 4.733333 -102.400002 164 163 161 
9.266666 4.733333 -102.400002 222 221 219 
9.333333 4.733333 -102.400002 255 255 253 
9.466666 4.733333 -102.400002 250 249 247 
9.533334 4.733333 -102.400002 254 253 251 
17.533333 4.733333 -102.400002 235 251 255 
17.600000 4.733333 -102.400002 196 213 231 
-13.066667 4.666667 -102.400002 100 117 133 
-2.866667 4.666667 -102.400002 16 15 13 
9.400000 4.666667 -102.400002 137 136 132 
9.600000 4.666667 -102.400002 131 130 126 
9.666667 4.666667 -102.400002 131 130 126 
1.315315 0.630631 -13.837838 131 130 126 
1.324324 0.630631 -13.837838 131 130 126 
1.333333 0.630631 -13.837838 131 130 126 
1.342342 0.630631 -13.837838 131 130 126 
1.351351 0.630631 -13.837838 131 130 126 
1.360360 0.630631 -13.837838 131 130 126 
1.369369 0.630631 -13.837838 131 130 126 
1.378378 0.630631 -13.837838 131 130 126 
1.387387 0.630631 -13.837838 131 130 126 
1.396396 0.630631 -13.837838 131 130 126 
1.405405 0.630631 -13.837838 131 130 126 
1.414414 0.630631 -13.837838 131 130 126 
1.423423 0.630631 -13.837838 131 130 126 
1.432432 0.630631 -13.837838 131 130 126 
1.441441 0.630631 -13.837838 255 255 251 
1.450450 0.630631 -13.837838 255 255 251 
1.459459 0.630631 -13.837838 255 255 251 
1.468468 0.630631 -13.837838 255 255 251 
1.477477 0.630631 -13.837838 255 255 251 
1.486486 0.630631 -13.837838 255 255 251 
1.495495 0.630631 -13.837838 255 255 251 
1.504505 0.630631 -13.837838 255 255 251 
1.513514 0.630631 -13.837838 255 255 251 
1.522523 0.630631 -13.837838 255 255 251 
1.531532 0.630631 -13.837838 255 255 251 
1.540541 0.630631 -13.837838 255 255 251 
1.549550 0.630631 -13.837838 255 255 251 
11.533334 4.666667 -102.400002 255 255 251 
11.600000 4.666667 -102.400002 255 255 251 
11.666667 4.666667 -102.400002 255 255 251 
11.733334 4.666667 -102.400002 252 252 250 
11.800000 4.666667 -102.400002 255 255 253 
11.866667 4.666667 -102.400002 254 254 252 
17.600000 4.666667 -102.400002 229 241 255 
17.666666 4.666667 -102.400002 224 240 255 
17.733334 4.666667 -102.400002 210 227 245 
-13.066667 4.600000 -102.400002 85 101 116 
-2.866667 4.600000 -102.400002 59 58 56 
11.933333 4.600000 -102.400002 124 124 122 
12.000000 4.600000 -102.400002 151 151 149 
12.066667 4.600000 -102.400002 235 235 233 
12.133333 4.600000 -102.400002 255 255 253 
12.266666 4.600000 -102.400002 255 255 253 
12.333333 4.600000 -102.400002 255 255 253 
12.400000 4.600000 -102.400002 255 255 253 
12.466666 4.600000 -102.400002 255 255 253 
12.533334 4.600000 -102.400002 255 255 253 
12.600000 4.600000 -102.400002 255 255 253 
12.666667 4.600000 -102.400002 255 255 253 
12.733334 4.600000 -102.400002 255 255 253 
12.800000 4.600000 -102.400002 255 255 253 
12.866667 4.600000 -102.400002 255 255 253 
12.933333 4.600000 -102.400002 255 255 253 
13.000000 4.600000 -102.400002 255 255 253 
13.066667 4.600000 -102.400002 255 255 253 
13.133333 4.600000 -102.400002 255 255 253 
13.200000 4.600000 -102.400002 255 255 253 
17.733334 4.600000 -102.400002 227 241 254 
17.799999 4.600000 -102.400002 197 215 229 
-13.066667 4.533333 -102.400002 88 104 119 
-2.866667 4.533333 -102.400002 87 86 84 
12.200000 4.533333 -102.400002 131 131 129 
13.266666 4.533333 -102.400002 131 131 129 
13.333333 4.533333 -102.400002 119 119 117 
13.400000 4.533333 -102.400002 157 157 155 
13.466666 4.533333 -102.400002 232 232 230 
13.666667 4.533333 -102.400002 255 255 253 
13.733334 4.533333 -102.400002 246 246 244 
13.800000 4.533333 -102.400002 255 255 253 
13.933333 4.533333 -102.400002 255 255 253 
14.000000 4.533333 -102.400002 255 255 253 
14.066667 4.533333 -102.400002 255 255 253 
14.133333 4.533333 -102.400002 255 255 253 
14.200000 4.533333 -102.400002 255 255 253 
14.266666 4.533333 -102.400002 255 255 253 
14.333333 4.533333 -102.400002 255 255 253 
14.400000 4.533333 -102.400002 253 253 251 
14.666667 4.533333 -102.400002 255 255 253 
17.866667 4.533333 -102.400002 230 243 255 
17.933332 4.533333 -102.400002 198 214 230 
-13.066667 4.466667 -102.400002 0 12 25 
-2.866667 4.466667 -102.400002 120 119 117 
13.533334 4.466667 -102.400002 137 137 135 
13.600000 4.466667 -102.400002 126 126 124 
13.866667 4.466667 -102.400002 130 130 128 
14.466666 4.466667 -102.400002 129 129 127 
14.533334 4.466667 -102.400002 136 136 134 
14.600000 4.466667 -102.400002 138 138 136 
14.733334 4.466667 -102.400002 111 111 109 
14.800000 4.466667 -102.400002 162 162 160 
14.866667 4.466667 -102.400002 240 240 238 
14.933333 4.466667 -102.400002 255 255 253 
15.000000 4.466667 -102.400002 255 255 253 
15.066667 4.466667 -102.400002 255 255 253 
15.133333 4.466667 -102.400002 255 255 253 
15.200000 4.466667 -102.400002 255 255 253 
15.266666 4.466667 -102.400002 255 255 253 
15.333333 4.466667 -102.400002 255 255 253 
15.400000 4.466667 -102.400002 255 255 253 
15.466666 4.466667 -102.400002 255 255 253 
15.533334 4.466667 -102.400002 255 255 253 
15.600000 4.466667 -102.400002 255 255 253 
15.666667 4.466667 -102.400002 255 255 253 
15.733334 4.466667 -102.400002 255 255 253 
15.800000 4.466667 -102.400002 255 255 253 
15.866667 4.466667 -102.400002 255 255 253 
17.933332 4.466667 -102.400002 243 255 255 
18.000000 4.466667 -102.400002 210 226 241 
-13.066667 4.400000 -102.400002 2 14 26 
-2.933333 4.400000 -102.400002 5 4 2 
15.933333 4.400000 -102.400002 129 130 125 
16.000000 4.400000 -102.400002 142 143 138 
16.066668 4.400000 -102.400002 123 124 119 
16.133333 4.400000 -102.400002 126 127 122 
16.200001 4.400000 -102.400002 149 150 145 
16.266666 4.400000 -102.400002 230 231 226 
16.333334 4.400000 -102.400002 253 254 249 
16.400000 4.400000 -102.400002 255 255 251 
16.466667 4.400000 -102.400002 237 238 233 
16.533333 4.400000 -102.400002 255 255 251 
-13.133333 4.333333 -102.400002 203 224 243 
-2.933333 4.333333 -102.400002 65 64 62 
16.600000 4.333333 -102.400002 134 135 130 
16.666666 4.333333 -102.400002 134 135 130 
16.733334 4.333333 -102.400002 134 135 130 
16.799999 4.333333 -102.400002 134 135 130 
16.866667 4.333333 -102.400002 134 135 130 
16.933332 4.333333 -102.400002 134 135 130 
17.000000 4.333333 -102.400002 134 135 129 
17.066668 4.333333 -102.400002 135 135 127 
17.133333 4.333333 -102.400002 135 135 127 
17.200001 4.333333 -102.400002 137 134 127 
17.266666 4.333333 -102.400002 137 134 125 
17.333334 4.333333 -102.400002 138 134 125 
17.400000 4.333333 -102.400002 138 133 127 
17.466667 4.333333 -102.400002 137 134 127 
17.533333 4.333333 -102.400002 137 134 129 
17.600000 4.333333 -102.400002 150 149 145 
17.666666 4.333333 -102.400002 227 227 225 
17.733334 4.333333 -102.400002 251 252 254 
17.799999 4.333333 -102.400002 252 255 255 
17.866667 4.333333 -102.400002 251 255 255 
17.933332 4.333333 -102.400002 248 255 255 
18.066668 4.333333 -102.400002 238 254 255 
-13.133333 4.266667 -102.400002 102 123 140 
-2.933333 4.266667 -102.400002 133 132 130 
18.000000 4.266667 -102.400002 126 133 139 
18.066668 4.266667 -102.400002 116 130 141 
-13.133333 4.200000 -102.400002 74 93 110 
-2.933333 4.200000 -102.400002 139 138 136 
18.066668 4.200000 -102.400002 126 139 148 
-13.133333 4.133333 -102.400002 0 13 30 
-3.000000 4.133333 -102.400002 9 8 6 
18.066668 4.133333 -102.400002 195 205 214 
-13.133333 4.066667 -102.400002 0 12 28 
-3.000000 4.066667 -102.400002 65 64 62 
18.000000 4.066667 -102.400002 129 136 142 
-13.200000 4.000000 -102.400002 197 218 237 
-3.000000 4.000000 -102.400002 127 126 122 
18.000000 4.000000 -102.400002 171 187 200 
-13.200000 3.933333 -102.400002 95 114 129 
-3.066667 3.933333 -102.400002 1 0 0 
17.933332 3.933333 -102.400002 127 145 157 
18.000000 3.933333 -102.400002 188 207 224 
-13.200000 3.866667 -102.400002 86 105 120 
-3.066667 3.866667 -102.400002 15 14 10 
17.933332 3.866667 -102.400002 158 176 188 
-13.200000 3.800000 -102.400002 97 116 130 
-3.066667 3.800000 -102.400002 67 66 62 
17.933332 3.800000 -102.400002 192 210 222 
-13.200000 3.733333 -102.400002 14 32 46 
-3.066667 3.733333 -102.400002 125 124 120 
17.866667 3.733333 -102.400002 128 145 153 
-13.200000 3.666667 -102.400002 0 4 16 
-2.937500 3.437500 -96.000000 1 0 0 
17.866667 3.666667 -102.400002 170 188 198 
-13.266666 3.600000 -102.400002 204 228 240 
-2.937500 3.375000 -96.000000 17 16 12 
17.799999 3.600000 -102.400002 135 150 157 
-13.266666 3.533333 -102.400002 96 118 129 
-2.937500 3.312500 -96.000000 54 53 49 
17.799999 3.533333 -102.400002 154 171 179 
-13.266666 3.466667 -102.400002 73 93 102 
-2.937500 3.250000 -96.000000 137 136 132 
17.733334 3.466667 -102.400002 105 118 124 
17.799999 3.466667 -102.400002 196 214 224 
-13.266666 3.400000 -102.400002 10 29 36 
-3.000000 3.187500 -96.000000 1 0 0 
17.733334 3.400000 -102.400002 147 162 169 
-13.266666 3.333333 -102.400002 0 12 19 
-3.000000 3.125000 -96.000000 8 7 5 
17.733334 3.333333 -102.400002 193 210 218 
-13.333333 3.266667 -102.400002 219 239 246 
-3.000000 3.062500 -96.000000 66 65 63 
17.666666 3.266667 -102.400002 122 135 143 
-13.333333 3.200000 -102.400002 205 224 230 
-3.000000 3.000000 -96.000000 120 119 117 
17.666666 3.200000 -102.400002 164 177 186 
-13.333333 3.133333 -102.400002 126 145 151 
-3.062500 2.937500 -96.000000 16 16 14 
17.600000 3.133333 -102.400002 128 137 144 
17.666666 3.133333 -102.400002 199 213 222 
-13.333333 3.066667 -102.400002 77 95 99 
-3.062500 2.875000 -96.000000 45 45 43 
17.600000 3.066667 -102.400002 170 179 188 
-13.333333 3.000000 -102.400002 0 17 21 
-3.062500 2.812500 -96.000000 68 68 66 
17.600000 3.000000 -102.400002 204 217 226 
-13.333333 2.933333 -102.400002 0 4 9 
-3.062500 2.750000 -96.000000 131 132 127 
17.533333 2.933333 -102.400002 123 141 151 
-13.400000 2.866667 -102.400002 213 238 243 
-2.797203 2.405594 -85.930069 15 16 11 
17.466667 2.866667 -102.400002 113 131 141 
17.533333 2.866667 -102.400002 194 216 229 
-13.400000 2.800000 -102.400002 99 122 128 
-3.125000 2.625000 -96.000000 51 52 47 
17.466667 2.800000 -102.400002 115 133 143 
-13.400000 2.733333 -102.400002 112 135 141 
-3.125000 2.562500 -96.000000 87 88 83 
17.466667 2.733333 -102.400002 143 163 174 
-13.400000 2.666667 -102.400002 96 117 122 
-3.125000 2.500000 -96.000000 113 114 109 
17.466667 2.666667 -102.400002 202 222 233 
-13.400000 2.600000 -102.400002 0 5 11 
-3.187500 2.437500 -96.000000 18 18 16 
17.400000 2.600000 -102.400002 162 179 186 
-13.400000 2.533333 -102.400002 0 13 17 
-3.187500 2.375000 -96.000000 45 45 43 
17.400000 2.533333 -102.400002 205 224 231 
-13.466666 2.466667 -102.400002 227 251 255 
-3.187500 2.312500 -96.000000 65 65 63 
17.333334 2.466667 -102.400002 114 129 134 
-13.466666 2.400000 -102.400002 111 135 139 
-3.187500 2.250000 -96.000000 130 130 128 
17.333334 2.400000 -102.400002 169 184 189 
-13.466666 2.333333 -102.400002 92 113 116 
-3.250000 2.187500 -96.000000 9 9 7 
17.266666 2.333333 -102.400002 131 145 146 
17.333334 2.333333 -102.400002 206 223 230 
-13.466666 2.266667 -102.400002 0 19 23 
-3.250000 2.125000 -96.000000 40 40 38 
17.266666 2.266667 -102.400002 173 188 191 
-13.466666 2.200000 -102.400002 0 5 9 
-3.250000 2.062500 -96.000000 88 88 86 
17.266666 2.200000 -102.400002 211 229 231 
-13.533334 2.133333 -102.400002 230 255 255 
-3.250000 2.000000 -96.000000 124 124 122 
17.200001 2.133333 -102.400002 139 155 155 
-13.533334 2.066667 -102.400002 213 239 240 
-3.312500 1.937500 -96.000000 0 0 0 
17.200001 2.066667 -102.400002 195 211 211 
-13.533334 2.000000 -102.400002 120 146 147 
-3.312500 1.875000 -96.000000 62 62 60 
17.133333 2.000000 -102.400002 136 150 150 
-13.533334 1.933333 -102.400002 97 118 119 
-3.312500 1.812500 -96.000000 132 132 130 
17.133333 1.933333 -102.400002 161 179 181 
-13.533334 1.866667 -102.400002 0 5 4 
-3.375000 1.750000 -96.000000 0 0 0 
17.066668 1.866667 -102.400002 119 136 143 
17.133333 1.866667 -102.400002 205 232 241 
-13.600000 1.800000 -102.400002 224 243 241 
-3.375000 1.687500 -96.000000 16 17 12 
17.066668 1.800000 -102.400002 165 185 194 
-13.600000 1.733333 -102.400002 229 248 246 
-3.375000 1.625000 -96.000000 76 77 72 
17.066668 1.733333 -102.400002 213 233 242 
-13.600000 1.666667 -102.400002 125 144 142 
-3.375000 1.562500 -96.000000 124 125 120 
17.000000 1.666667 -102.400002 143 148 152 
-13.600000 1.600000 -102.400002 93 112 110 
-3.375000 1.500000 -96.000000 133 134 129 
17.000000 1.600000 -102.400002 218 225 231 
-13.600000 1.533333 -102.400002 100 116 115 
-3.437500 1.437500 -96.000000 2 2 0 
16.933332 1.533333 -102.400002 129 133 136 
-13.600000 1.466667 -102.400002 0 13 13 
-3.437500 1.375000 -96.000000 63 63 61 
16.933332 1.466667 -102.400002 169 177 179 
-13.600000 1.400000 -102.400002 0 10 10 
-3.437500 1.312500 -96.000000 120 120 118 
16.866667 1.400000 -102.400002 124 135 137 
16.933332 1.400000 -102.400002 233 244 246 
-13.666667 1.333333 -102.400002 219 238 236 
-3.437500 1.250000 -96.000000 133 133 131 
16.866667 1.333333 -102.400002 180 196 196 
-13.666667 1.266667 -102.400002 136 152 151 
-3.500000 1.187500 -96.000000 8 8 6 
16.866667 1.266667 -102.400002 212 230 232 
-13.666667 1.200000 -102.400002 103 117 117 
-3.500000 1.125000 -96.000000 64 64 62 
16.799999 1.200000 -102.400002 128 146 146 
-13.666667 1.133333 -102.400002 7 21 21 
-3.500000 1.062500 -96.000000 123 123 121 
16.799999 1.133333 -102.400002 171 191 192 
-13.666667 1.066667 -102.400002 0 4 4 
-3.562500 1.000000 -96.000000 0 0 0 
16.733334 1.066667 -102.400002 131 147 147 
16.799999 1.066667 -102.400002 212 233 236 
-13.733334 1.000000 -102.400002 224 238 241 
-3.562500 0.937500 -96.000000 9 9 7 
16.733334 1.000000 -102.400002 182 200 200 
-13.733334 0.933333 -102.400002 226 240 243 
-3.562500 0.875000 -96.000000 66 66 64 
16.733334 0.933333 -102.400002 222 240 242 
-13.733334 0.866667 -102.400002 130 141 143 
-3.562500 0.812500 -96.000000 127 127 125 
16.666666 0.866667 -102.400002 122 136 136 
-13.733334 0.800000 -102.400002 125 131 131 
-3.625000 0.750000 -96.000000 1 0 0 
16.666666 0.800000 -102.400002 231 247 244 
-13.733334 0.733333 -102.400002 11 15 14 
-3.625000 0.687500 -96.000000 18 17 13 
16.600000 0.733333 -102.400002 139 152 145 
-13.800000 0.666667 -102.400002 237 243 241 
-3.625000 0.625000 -96.000000 68 67 63 
16.600000 0.666667 -102.400002 181 194 187 
-13.800000 0.600000 -102.400002 251 255 255 
-3.625000 0.562500 -96.000000 116 115 111 
16.533333 0.600000 -102.400002 141 151 143 
16.600000 0.600000 -102.400002 222 235 228 
-13.800000 0.533333 -102.400002 139 145 143 
-3.687500 0.500000 -96.000000 11 10 8 
16.533333 0.533333 -102.400002 186 197 191 
-13.800000 0.466667 -102.400002 118 124 122 
-3.687500 0.437500 -96.000000 44 43 41 
16.533333 0.466667 -102.400002 225 236 232 
-13.800000 0.400000 -102.400002 4 10 8 
-3.687500 0.375000 -96.000000 91 90 88 
16.466667 0.400000 -102.400002 144 155 149 
16.533333 0.400000 -102.400002 241 253 249 
-13.866667 0.333333 -102.400002 248 254 254 
-3.687500 0.312500 -96.000000 129 128 126 
16.466667 0.333333 -102.400002 233 244 240 
-13.800000 0.266667 -102.400002 0 2 0 
-3.750000 0.250000 -96.000000 12 11 9 
16.400000 0.266667 -102.400002 137 148 144 
-13.866667 0.200000 -102.400002 242 248 248 
-3.750000 0.187500 -96.000000 45 44 42 
16.400000 0.200000 -102.400002 190 202 200 
-13.866667 0.133333 -102.400002 143 149 149 
-3.750000 0.125000 -96.000000 86 85 83 
16.400000 0.133333 -102.400002 222 236 236 
-13.866667 0.066667 -102.400002 118 127 126 
-3.750000 0.062500 -96.000000 118 117 115 
16.333334 0.066667 -102.400002 147 159 157 
16.400000 0.066667 -102.400002 232 246 247 
-13.866667 0.000000 -102.400002 0 5 4 
-3.812500 0.000000 -96.000000 14 13 11 
16.333334 0.000000 -102.400002 225 240 237 
-13.933333 -0.066667 -102.400002 248 255 255 
-3.812500 -0.062500 -96.000000 46 45 43 
16.266666 -0.066667 -102.400002 127 138 134 
-13.933333 -0.133333 -102.400002 222 234 232 
-3.812500 -0.125000 -96.000000 87 86 84 
16.266666 -0.133333 -102.400002 174 186 182 
-13.933333 -0.200000 -102.400002 131 143 143 
-3.812500 -0.187500 -96.000000 120 119 117 
16.200001 -0.200000 -102.400002 123 134 128 
16.266666 -0.200000 -102.400002 238 253 250 
-13.933333 -0.266667 -102.400002 130 142 142 
-3.875000 -0.250000 -96.000000 3 2 0 
16.200001 -0.266667 -102.400002 176 191 188 
-13.933333 -0.333333 -102.400002 111 123 123 
-3.875000 -0.312500 -96.000000 41 40 36 
16.200001 -0.333333 -102.400002 223 239 236 
-13.933333 -0.400000 -102.400002 0 10 10 
-3.875000 -0.375000 -96.000000 88 87 83 
16.133333 -0.400000 -102.400002 142 154 152 
-1.882883 -0.063063 -13.837838 1 15 15 
-3.875000 -0.437500 -96.000000 120 119 115 
16.133333 -0.466667 -102.400002 217 232 229 
-14.000000 -0.533333 -102.400002 224 242 242 
-3.937500 -0.500000 -96.000000 16 15 11 
16.066668 -0.533333 -102.400002 125 137 135 
-14.000000 -0.600000 -102.400002 120 138 138 
-3.937500 -0.562500 -96.000000 65 64 60 
16.066668 -0.600000 -102.400002 181 196 193 
-14.000000 -0.666667 -102.400002 84 102 102 
-3.937500 -0.625000 -96.000000 115 114 110 
16.000000 -0.666667 -102.400002 129 141 139 
-1.891892 -0.099099 -13.837838 0 16 16 
-4.000000 -0.687500 -96.000000 2 1 0 
16.000000 -0.733333 -102.400002 173 188 185 
-14.066667 -0.800000 -102.400002 224 242 242 
-4.000000 -0.750000 -96.000000 3 2 0 
16.000000 -0.800000 -102.400002 221 237 236 
-14.066667 -0.866667 -102.400002 215 231 231 
-4.000000 -0.812500 -96.000000 64 63 61 
15.933333 -0.866667 -102.400002 128 139 133 
-1.900901 -0.126126 -13.837838 219 230 232 
-4.000000 -0.875000 -96.000000 122 121 119 
15.933333 -0.933333 -102.400002 172 185 178 
-1.900901 -0.135135 -13.837838 128 138 140 
-4.000000 -0.937500 -96.000000 137 136 134 
15.866667 -1.000000 -102.400002 137 147 139 
15.933333 -1.000000 -102.400002 215 227 223 
-1.900901 -0.144144 -13.837838 94 102 105 
-4.062500 -1.000000 -96.000000 7 7 5 
15.866667 -1.066667 -102.400002 173 184 176 
-1.900901 -0.153153 -13.837838 4 9 13 
-4.062500 -1.062500 -96.000000 66 66 64 
15.866667 -1.133333 -102.400002 197 208 200 
-1.900901 -0.162162 -13.837838 6 9 14 
-4.062500 -1.125000 -96.000000 123 123 121 
15.800000 -1.200000 -102.400002 149 160 152 
15.866667 -1.200000 -102.400002 208 221 212 
-1.909910 -0.171171 -13.837838 205 210 214 
-4.125000 -1.187500 -96.000000 0 0 0 
15.733334 -1.266667 -102.400002 118 129 123 
15.800000 -1.266667 -102.400002 201 214 207 
-1.909910 -0.180180 -13.837838 103 111 113 
-4.125000 -1.250000 -96.000000 10 11 6 
15.733334 -1.333333 -102.400002 140 152 150 
-1.909910 -0.189189 -13.837838 92 101 100 
-4.125000 -1.312500 -96.000000 67 68 62 
15.733334 -1.400000 -102.400002 163 177 177 
-1.909910 -0.198198 -13.837838 75 84 83 
-4.125000 -1.375000 -96.000000 128 129 123 
15.666667 -1.466667 -102.400002 141 150 149 
15.733334 -1.466667 -102.400002 193 207 207 
-1.909910 -0.207207 -13.837838 3 12 11 
-4.187500 -1.437500 -96.000000 0 1 0 
15.666667 -1.533333 -102.400002 165 174 173 
-1.918919 -0.216216 -13.837838 197 207 206 
-4.187500 -1.500000 -96.000000 5 6 1 
15.666667 -1.600000 -102.400002 186 195 194 
-1.918919 -0.225225 -13.837838 186 196 195 
-4.187500 -1.562500 -96.000000 53 54 49 
15.600000 -1.666667 -102.400002 141 145 146 
-1.918919 -0.234234 -13.837838 98 108 107 
-4.187500 -1.625000 -96.000000 113 114 109 
15.600000 -1.733333 -102.400002 169 175 175 
-1.918919 -0.243243 -13.837838 77 86 85 
-4.187500 -1.687500 -96.000000 146 147 142 
15.533334 -1.800000 -102.400002 129 134 130 
-1.918919 -0.252252 -13.837838 2 11 10 
-4.250000 -1.750000 -96.000000 0 1 0 
15.533334 -1.866667 -102.400002 163 168 164 
-1.918919 -0.261261 -13.837838 0 8 7 
-4.250000 -1.812500 -96.000000 65 66 61 
15.533334 -1.933333 -102.400002 166 172 168 
-1.927928 -0.270270 -13.837838 177 187 186 
-4.250000 -1.875000 -96.000000 134 135 130 
15.466666 -2.000000 -102.400002 149 154 150 
-1.927928 -0.279279 -13.837838 155 165 164 
-4.312500 -1.937500 -96.000000 6 7 2 
15.466666 -2.066667 -102.400002 162 168 164 
-1.927928 -0.288288 -13.837838 114 124 123 
-4.312500 -2.000000 -96.000000 43 44 39 
15.400000 -2.133333 -102.400002 135 140 134 
-1.927928 -0.297297 -13.837838 61 70 69 
-4.312500 -2.062500 -96.000000 93 94 89 
15.400000 -2.200000 -102.400002 146 153 146 
-1.927928 -0.306306 -13.837838 10 19 18 
-4.312500 -2.125000 -96.000000 125 126 121 
15.333333 -2.266667 -102.400002 141 143 138 
-1.927928 -0.315315 -13.837838 0 2 2 
-4.375000 -2.187500 -96.000000 0 1 0 
15.333333 -2.333333 -102.400002 142 147 141 
-1.936937 -0.324324 -13.837838 150 154 153 
-4.375000 -2.250000 -96.000000 63 64 59 
15.266666 -2.400000 -102.400002 134 139 133 
15.333333 -2.400000 -102.400002 150 155 151 
-1.936937 -0.333333 -13.837838 106 110 109 
-4.375000 -2.312500 -96.000000 84 85 80 
15.266666 -2.466667 -102.400002 137 142 136 
-2.037915 -0.360190 -14.559241 55 59 58 
-4.375000 -2.375000 -96.000000 111 112 107 
15.200000 -2.533333 -102.400002 133 138 132 
15.266666 -2.533333 -102.400002 141 146 140 
-2.316498 -0.420202 -16.549496 10 12 11 
-4.437500 -2.437500 -96.000000 16 16 14 
-14.333333 -2.666667 -102.400002 0 1 0 
-4.437500 -2.500000 -96.000000 42 42 40 
-2.107317 -0.400000 -14.985366 152 154 153 
-4.437500 -2.562500 -96.000000 79 79 77 
-14.400000 -2.800000 -102.400002 123 125 124 
-4.437500 -2.625000 -96.000000 116 116 114 
-14.400000 -2.866667 -102.400002 68 70 69 
-4.500000 -2.687500 -96.000000 0 0 0 
-14.400000 -2.933333 -102.400002 48 50 49 
-4.500000 -2.750000 -96.000000 62 62 60 
-14.400000 -3.000000 -102.400002 14 16 15 
-4.500000 -2.812500 -96.000000 85 85 83 
-14.466666 -3.066667 -102.400002 118 118 118 
-4.500000 -2.875000 -96.000000 114 114 112 
15.000000 -3.066667 -102.400002 127 125 126 
15.066667 -3.066667 -102.400002 118 116 117 
15.133333 -3.066667 -102.400002 117 115 116 
-14.466666 -3.133333 -102.400002 98 98 98 
-4.562500 -2.937500 -96.000000 9 9 7 
15.000000 -3.133333 -102.400002 123 121 122 
-14.466666 -3.200000 -102.400002 67 67 67 
-4.562500 -3.000000 -96.000000 63 63 61 
15.000000 -3.200000 -102.400002 118 116 119 
-14.466666 -3.266667 -102.400002 50 50 50 
-4.562500 -3.062500 -96.000000 122 122 120 
14.933333 -3.266667 -102.400002 123 121 122 
15.000000 -3.266667 -102.400002 112 110 113 
-14.466666 -3.333333 -102.400002 52 50 51 
-4.562500 -3.125000 -96.000000 142 142 140 
14.933333 -3.333333 -102.400002 114 112 113 
-14.466666 -3.400000 -102.400002 53 51 52 
-4.625000 -3.187500 -96.000000 0 0 0 
14.866667 -3.400000 -102.400002 132 131 127 
-3.078014 -0.737589 -21.787233 67 66 64 
-14.400000 -3.466667 -102.400002 5 4 2 
-4.625000 -3.250000 -96.000000 76 75 73 
14.866667 -3.466667 -102.400002 117 116 114 
-14.400000 -3.533333 -102.400002 51 50 48 
-4.625000 -3.312500 -96.000000 119 118 114 
14.800000 -3.533333 -102.400002 125 124 122 
-14.400000 -3.600000 -102.400002 63 62 60 
-14.333333 -3.600000 -102.400002 1 0 0 
-4.625000 -3.375000 -96.000000 142 141 137 
9.472000 -2.304000 -65.536003 120 119 117 
-14.333333 -3.666667 -102.400002 49 48 46 
-4.687500 -3.437500 -96.000000 4 3 1 
9.396826 -2.328042 -65.015877 115 114 112 
-14.333333 -3.733333 -102.400002 60 59 57 
-14.266666 -3.733333 -102.400002 4 4 2 
-4.687500 -3.500000 -96.000000 67 66 64 
14.733334 -3.733333 -102.400002 123 122 120 
-14.266666 -3.800000 -102.400002 50 50 48 
-4.687500 -3.562500 -96.000000 118 117 115 
14.733334 -3.800000 -102.400002 116 115 113 
-2.911565 -0.789116 -20.897959 59 59 57 
-4.687500 -3.625000 -96.000000 131 130 128 
14.666667 -3.866667 -102.400002 123 122 120 
-2.911565 -0.802721 -20.897959 94 94 92 
-2.897959 -0.802721 -20.897959 48 48 46 
-4.750000 -3.687500 -96.000000 6 5 3 
14.666667 -3.933333 -102.400002 121 120 118 
-2.859060 -0.805369 -20.617449 49 49 47 
-4.750000 -3.750000 -96.000000 68 67 65 
14.600000 -4.000000 -102.400002 126 125 123 
14.666667 -4.000000 -102.400002 114 113 111 
-2.821192 -0.807947 -20.344372 85 85 83 
-2.845638 -0.818792 -20.617449 14 14 12 
-4.750000 -3.812500 -96.000000 124 123 121 
14.600000 -4.066667 -102.400002 121 120 118 
-2.807947 -0.821192 -20.344372 49 49 47 
-4.812500 -3.875000 -96.000000 1 0 0 
14.600000 -4.133333 -102.400002 114 113 111 
-14.133333 -4.200000 -102.400002 93 93 91 
-14.066667 -4.200000 -102.400002 7 7 5 
-4.812500 -3.937500 -96.000000 1 0 0 
14.533334 -4.200000 -102.400002 125 124 122 
-14.066667 -4.266667 -102.400002 52 52 50 
-4.812500 -4.000000 -96.000000 68 67 65 
14.533334 -4.266667 -102.400002 121 120 118 
-14.066667 -4.333333 -102.400002 98 98 96 
-14.000000 -4.333333 -102.400002 0 0 0 
-4.812500 -4.062500 -96.000000 128 127 125 
14.466666 -4.333333 -102.400002 125 124 120 
14.533334 -4.333333 -102.400002 114 113 111 
-14.000000 -4.400000 -102.400002 53 53 51 
-4.875000 -4.125000 -96.000000 13 12 10 
14.466666 -4.400000 -102.400002 117 116 112 
-2.514970 -0.802395 -18.395210 115 114 112 
-13.933333 -4.466667 -102.400002 1 0 0 
-4.875000 -4.187500 -96.000000 46 45 43 
14.466666 -4.466667 -102.400002 111 110 106 
-2.502994 -0.814371 -18.395210 68 64 63 
-4.875000 -4.250000 -96.000000 74 73 69 
14.400000 -4.533333 -102.400002 123 119 116 
-2.361582 -0.779661 -17.355932 91 86 83 
-2.491018 -0.826347 -18.395210 19 13 15 
-4.875000 -4.312500 -96.000000 117 116 111 
14.400000 -4.600000 -102.400002 117 112 109 
-2.350282 -0.790960 -17.355932 59 53 55 
-4.937500 -4.375000 -96.000000 15 14 9 
14.333333 -4.666667 -102.400002 128 124 121 
14.400000 -4.666667 -102.400002 109 104 101 
-2.049261 -0.699507 -15.133005 96 90 92 
-2.338983 -0.802260 -17.355932 16 10 12 
-4.937500 -4.437500 -96.000000 47 46 41 
14.333333 -4.733333 -102.400002 121 117 114 
-2.059701 -0.716418 -15.283582 57 51 53 
-4.937500 -4.500000 -96.000000 91 90 85 
14.266666 -4.800000 -102.400002 125 121 118 
14.333333 -4.800000 -102.400002 114 110 107 
-1.962085 -0.691943 -14.559241 96 90 92 
-4.937500 -4.562500 -96.000000 120 119 114 
14.266666 -4.866667 -102.400002 120 116 113 
-2.029557 -0.729064 -15.133005 41 37 38 
-5.000000 -4.625000 -96.000000 17 16 12 
14.266666 -4.933333 -102.400002 117 113 110 
-1.952607 -0.710900 -14.559241 68 64 65 
-2.240437 -0.819672 -16.786884 3 0 0 
-5.000000 -4.687500 -96.000000 55 54 50 
14.200000 -5.000000 -102.400002 128 127 123 
-2.039801 -0.756219 -15.283582 54 50 51 
-5.000000 -4.750000 -96.000000 77 76 72 
14.200000 -5.066667 -102.400002 111 110 106 
-1.961722 -0.736842 -14.698565 66 62 63 
-5.000000 -4.812500 -96.000000 122 121 117 
14.133333 -5.133333 -102.400002 126 125 121 
-1.846847 -0.702703 -13.837838 97 93 94 
-2.029851 -0.776119 -15.283582 43 39 40 
-5.062500 -4.875000 -96.000000 11 11 9 
14.133333 -5.200000 -102.400002 120 119 115 
-1.952153 -0.755981 -14.698565 59 55 56 
-5.062500 -4.937500 -96.000000 49 49 47 
14.133333 -5.266667 -102.400002 113 112 108 
-1.837838 -0.720721 -13.837838 96 92 93 
-1.942584 -0.765550 -14.698565 47 43 44 
-5.062500 -5.000000 -96.000000 87 87 85 
14.066667 -5.333333 -102.400002 121 120 116 
-1.828829 -0.729730 -13.837838 64 60 61 
-5.062500 -5.062500 -96.000000 113 113 111 
14.066667 -5.400000 -102.400002 114 113 109 
-1.828829 -0.738739 -13.837838 96 92 93 
-1.819820 -0.738739 -13.837838 41 39 40 
-5.125000 -5.125000 -96.000000 23 23 23 
14.066667 -5.466667 -102.400002 109 108 104 
-1.819820 -0.747748 -13.837838 51 47 48 
-5.125000 -5.187500 -96.000000 45 45 43 
14.000000 -5.533333 -102.400002 126 122 119 
-1.819820 -0.756757 -13.837838 94 88 88 
-1.810811 -0.756757 -13.837838 53 49 48 
-5.125000 -5.250000 -96.000000 83 84 79 
13.933333 -5.600000 -102.400002 124 120 117 
14.000000 -5.600000 -102.400002 111 106 103 
-1.810811 -0.765766 -13.837838 72 66 66 
-5.125000 -5.312500 -96.000000 113 114 108 
13.933333 -5.666667 -102.400002 122 117 114 
-1.801802 -0.774775 -13.837838 9 5 4 
-5.187500 -5.375000 -96.000000 2 3 0 
13.866667 -5.733333 -102.400002 129 124 121 
13.933333 -5.733333 -102.400002 117 112 109 
-1.801802 -0.783784 -13.837838 53 49 48 
-5.187500 -5.437500 -96.000000 63 64 59 
13.866667 -5.800000 -102.400002 121 116 113 
-1.801802 -0.792793 -13.837838 98 94 93 
-5.187500 -5.500000 -96.000000 129 130 125 
13.866667 -5.866667 -102.400002 114 109 106 
-1.792793 -0.801802 -13.837838 47 43 42 
-5.250000 -5.562500 -96.000000 0 1 0 
13.800000 -5.933333 -102.400002 129 128 123 
-1.792793 -0.810811 -13.837838 86 82 79 
-1.783784 -0.810811 -13.837838 20 19 17 
-5.250000 -5.625000 -96.000000 14 15 10 
13.800000 -6.000000 -102.400002 118 117 112 
-1.783784 -0.819820 -13.837838 46 45 43 
-5.250000 -5.687500 -96.000000 59 60 55 
13.733334 -6.066667 -102.400002 123 122 117 
13.800000 -6.066667 -102.400002 109 108 103 
-1.783784 -0.828829 -13.837838 104 103 99 
-1.774775 -0.828829 -13.837838 4 3 0 
-5.250000 -5.750000 -96.000000 123 124 119 
13.733334 -6.133333 -102.400002 118 117 112 
-1.774775 -0.837838 -13.837838 61 60 56 
-5.250000 -5.812500 -96.000000 120 121 116 
13.733334 -6.200000 -102.400002 113 112 107 
-1.783814 -0.851160 -13.908319 106 105 101 
-1.776771 -0.852125 -13.924079 4 3 0 
-5.312500 -5.875000 -96.000000 7 8 3 
13.666667 -6.266667 -102.400002 120 119 114 
-1.776771 -0.861190 -13.924079 58 57 53 
-5.312500 -5.937500 -96.000000 67 68 63 
13.666667 -6.333333 -102.400002 112 111 106 
-1.775764 -0.869762 -13.916195 104 103 99 
-5.312500 -6.000000 -96.000000 123 124 119 
13.600000 -6.400000 -102.400002 126 125 120 
-1.766704 -0.878822 -13.916195 41 40 36 
-5.312500 -6.062500 -96.000000 134 135 130 
13.600000 -6.466667 -102.400002 119 118 113 
-1.772727 -0.890909 -13.963636 76 75 71 
-1.759637 -0.888889 -13.931973 8 7 3 
-5.375000 -6.125000 -96.000000 13 14 9 
13.600000 -6.533333 -102.400002 111 110 105 
-1.759637 -0.897959 -13.931973 45 41 38 
-5.375000 -6.187500 -96.000000 67 68 63 
13.533334 -6.600000 -102.400002 125 122 117 
-1.762635 -0.908575 -13.955707 61 56 52 
-5.375000 -6.250000 -96.000000 125 126 121 
13.466666 -6.666667 -102.400002 128 123 119 
13.533334 -6.666667 -102.400002 113 108 104 
-1.762635 -0.917660 -13.955707 93 88 84 
-1.748584 -0.915062 -13.916195 49 44 40 
-5.375000 -6.312500 -96.000000 122 123 118 
13.466666 -6.733333 -102.400002 125 120 116 
-1.748584 -0.924122 -13.916195 76 71 67 
-5.437500 -6.375000 -96.000000 11 11 9 
13.466666 -6.800000 -102.400002 119 114 110 
-1.748584 -0.933182 -13.916195 88 83 79 
-1.729730 -0.927928 -13.837838 33 29 26 
-5.437500 -6.437500 -96.000000 65 65 63 
13.400000 -6.866667 -102.400002 127 122 118 
13.466666 -6.866667 -102.400002 113 108 104 
-1.729730 -0.936937 -13.837838 68 64 61 
-1.720721 -0.936937 -13.837838 15 11 8 
-5.437500 -6.500000 -96.000000 127 127 125 
13.400000 -6.933333 -102.400002 122 117 113 
-1.720721 -0.945946 -13.837838 37 33 30 
-5.500000 -6.562500 -96.000000 4 4 2 
13.333333 -7.000000 -102.400002 128 123 119 
13.400000 -7.000000 -102.400002 115 110 106 
-1.720721 -0.954955 -13.837838 70 66 63 
-1.711712 -0.954955 -13.837838 21 20 18 
-5.500000 -6.625000 -96.000000 41 41 39 
13.333333 -7.066667 -102.400002 121 116 112 
-12.666667 -7.133333 -102.400002 43 42 40 
-5.500000 -6.687500 -96.000000 78 78 76 
13.333333 -7.133333 -102.400002 116 111 107 
-12.666667 -7.200000 -102.400002 56 55 53 
-5.500000 -6.750000 -96.000000 131 131 129 
13.266666 -7.200000 -102.400002 128 125 120 
-12.666667 -7.266667 -102.400002 87 86 84 
-12.600000 -7.266667 -102.400002 10 9 7 
-5.562500 -6.812500 -96.000000 14 14 12 
13.266666 -7.266667 -102.400002 121 118 113 
-12.600000 -7.333333 -102.400002 45 44 42 
-5.562500 -6.875000 -96.000000 51 51 49 
13.200000 -7.333333 -102.400002 124 121 116 
13.266666 -7.333333 -102.400002 111 108 103 
-2.891013 -1.697897 -23.495220 90 89 87 
-2.895092 -1.709336 -23.653513 15 14 12 
-5.562500 -6.937500 -96.000000 88 88 86 
13.200000 -7.400000 -102.400002 117 114 109 
-2.881226 -1.716475 -23.540230 55 54 52 
-5.562500 -7.000000 -96.000000 114 114 112 
13.200000 -7.466667 -102.400002 112 109 104 
-2.883988 -1.733461 -23.562799 100 99 97 
-2.885246 -1.743491 -23.699133 1 0 0 
-5.625000 -7.062500 -96.000000 24 24 22 
13.133333 -7.533333 -102.400002 121 120 115 
-2.885246 -1.758920 -23.699133 47 46 44 
-5.625000 -7.125000 -96.000000 55 55 53 
13.133333 -7.600000 -102.400002 114 113 108 
-2.885246 -1.774349 -23.699133 106 105 103 
-2.900585 -1.793372 -23.953217 1 0 0 
-5.625000 -7.187500 -96.000000 75 75 73 
13.066667 -7.666667 -102.400002 124 123 118 
13.133333 -7.666667 -102.400002 109 108 103 
-2.897760 -1.807205 -23.929893 70 66 63 
-5.625000 -7.250000 -96.000000 136 135 133 
13.066667 -7.733333 -102.400002 120 117 112 
-2.882181 -1.822785 -23.929893 19 14 10 
-5.687500 -7.312500 -96.000000 10 9 7 
13.066667 -7.800000 -102.400002 115 112 107 
-2.879377 -1.836576 -23.906614 61 56 52 
-5.687500 -7.375000 -96.000000 45 44 42 
13.000000 -7.866667 -102.400002 121 118 113 
13.066667 -7.866667 -102.400002 108 105 100 
-2.890625 -1.859375 -24.000000 94 89 85 
-5.687500 -7.437500 -96.000000 91 90 88 
13.000000 -7.933333 -102.400002 115 112 107 
-2.897638 -1.889764 -24.188976 34 30 27 
-5.687500 -7.500000 -96.000000 125 124 122 
12.933333 -8.000000 -102.400002 128 125 120 
-2.991870 -1.967480 -24.975609 64 60 57 
-5.750000 -7.562500 -96.000000 10 9 7 
12.933333 -8.066667 -102.400002 119 116 111 
-11.500000 -7.625000 -96.000000 93 89 86 
-2.928000 -1.952000 -24.576000 39 35 32 
-5.750000 -7.625000 -96.000000 68 67 65 
12.866667 -8.133333 -102.400002 123 120 115 
12.933333 -8.133333 -102.400002 110 107 102 
-11.437500 -7.687500 -96.000000 48 44 41 
-5.750000 -7.687500 -96.000000 126 125 123 
12.866667 -8.200000 -102.400002 119 116 111 
-11.437500 -7.750000 -96.000000 103 99 96 
-3.008265 -2.049587 -25.388430 48 47 45 
-5.812500 -7.750000 -96.000000 2 1 0 
12.866667 -8.266666 -102.400002 113 110 105 
-11.375000 -7.812500 -96.000000 62 61 59 
-5.812500 -7.812500 -96.000000 13 12 10 
12.800000 -8.333333 -102.400002 124 121 116 
-3.042017 -2.117647 -25.815126 40 39 37 
-5.812500 -7.875000 -96.000000 63 62 60 
12.800000 -8.400000 -102.400002 114 111 106 
-11.312500 -7.937500 -96.000000 57 56 54 
-5.812500 -7.937500 -96.000000 122 121 119 
12.733334 -8.466666 -102.400002 127 126 121 
-11.312500 -8.000000 -96.000000 95 94 92 
-11.250000 -8.000000 -96.000000 47 46 44 
-5.875000 -8.000000 -96.000000 1 0 0 
12.733334 -8.533334 -102.400002 120 119 114 
-11.250000 -8.062500 -96.000000 64 63 61 
-5.875000 -8.062500 -96.000000 1 0 0 
12.733334 -8.600000 -102.400002 110 109 104 
-11.250000 -8.125000 -96.000000 97 96 94 
-11.187500 -8.125000 -96.000000 42 41 39 
-5.875000 -8.125000 -96.000000 64 63 61 
12.666667 -8.666667 -102.400002 120 119 114 
-11.187500 -8.187500 -96.000000 56 55 51 
-2.735831 -2.013449 -23.608068 5 1 0 
-5.875000 -8.187500 -96.000000 133 132 130 
12.666667 -8.733334 -102.400002 119 116 111 
-2.759690 -2.046512 -23.813953 59 54 51 
-5.937500 -8.250000 -96.000000 1 0 0 
12.600000 -8.800000 -102.400002 127 122 118 
12.666667 -8.800000 -102.400002 113 108 104 
-11.125000 -8.312500 -96.000000 64 59 55 
-5.937500 -8.312500 -96.000000 11 10 5 
12.600000 -8.866667 -102.400002 122 114 111 
-11.125000 -8.375000 -96.000000 80 75 71 
-11.062500 -8.375000 -96.000000 17 12 9 
-5.937500 -8.375000 -96.000000 64 63 58 
12.600000 -8.933333 -102.400002 113 105 102 
-11.062500 -8.437500 -96.000000 60 55 52 
-5.937500 -8.437500 -96.000000 120 119 114 
12.533334 -9.000000 -102.400002 124 116 113 
-11.062500 -8.500000 -96.000000 98 93 90 
-11.000000 -8.500000 -96.000000 14 10 9 
-5.937500 -8.500000 -96.000000 137 136 131 
12.533334 -9.066667 -102.400002 118 110 107 
-11.000000 -8.562500 -96.000000 47 43 42 
-6.000000 -8.562500 -96.000000 7 6 2 
12.466666 -9.133333 -102.400002 123 118 114 
12.533334 -9.133333 -102.400002 112 104 101 
-11.000000 -8.625000 -96.000000 89 85 84 
-6.000000 -8.625000 -96.000000 68 67 63 
12.466666 -9.200000 -102.400002 114 109 105 
-10.937500 -8.687500 -96.000000 37 33 34 
-6.000000 -8.687500 -96.000000 133 132 128 
12.400000 -9.266666 -102.400002 130 125 121 
-10.937500 -8.750000 -96.000000 113 109 110 
-10.875000 -8.750000 -96.000000 1 0 0 
-6.062500 -8.750000 -96.000000 0 0 0 
12.400000 -9.333333 -102.400002 118 113 109 
-10.875000 -8.812500 -96.000000 59 57 58 
-6.062500 -8.812500 -96.000000 13 13 11 
12.333333 -9.400000 -102.400002 126 121 117 
12.400000 -9.400000 -102.400002 113 108 104 
-10.875000 -8.875000 -96.000000 107 105 106 
-10.812500 -8.875000 -96.000000 3 1 2 
-6.062500 -8.875000 -96.000000 65 65 63 
12.333333 -9.466666 -102.400002 119 114 110 
-10.812500 -8.937500 -96.000000 49 47 48 
-6.062500 -8.937500 -96.000000 120 120 118 
12.333333 -9.533334 -102.400002 114 109 105 
-10.812500 -9.000000 -96.000000 92 90 91 
-10.750000 -9.000000 -96.000000 7 5 6 
-6.125000 -9.000000 -96.000000 21 21 21 
12.266666 -9.600000 -102.400002 129 124 120 
-10.750000 -9.062500 -96.000000 44 42 43 
-6.125000 -9.062500 -96.000000 48 48 48 
12.266666 -9.666667 -102.400002 119 114 110 
-10.750000 -9.125000 -96.000000 72 70 71 
-10.687500 -9.125000 -96.000000 9 7 8 
-6.125000 -9.125000 -96.000000 90 90 90 
12.266666 -9.733334 -102.400002 107 102 98 
-10.687500 -9.187500 -96.000000 45 44 42 
-6.125000 -9.187500 -96.000000 127 127 125 
12.200000 -9.800000 -102.400002 133 130 125 
-10.687500 -9.250000 -96.000000 63 59 56 
-6.187500 -9.250000 -96.000000 5 6 1 
12.200000 -9.866667 -102.400002 106 101 97 
-10.687500 -9.312500 -96.000000 87 82 78 
-10.625000 -9.312500 -96.000000 39 34 30 
-6.187500 -9.312500 -96.000000 41 42 37 
12.133333 -9.933333 -102.400002 128 123 119 
-10.625000 -9.375000 -96.000000 72 67 63 
-6.187500 -9.375000 -96.000000 82 83 78 
12.133333 -10.000000 -102.400002 113 108 104 
-10.625000 -9.437500 -96.000000 94 89 85 
-10.562500 -9.437500 -96.000000 41 36 32 
-6.187500 -9.437500 -96.000000 113 114 109 
12.066667 -10.066667 -102.400002 126 123 118 
-10.562500 -9.500000 -96.000000 75 70 66 
-10.500000 -9.500000 -96.000000 21 17 14 
-6.250000 -9.500000 -96.000000 12 13 8 
12.066667 -10.133333 -102.400002 119 116 111 
-10.500000 -9.562500 -96.000000 33 29 26 
-6.250000 -9.562500 -96.000000 43 44 39 
12.000000 -10.200000 -102.400002 129 126 121 
12.066667 -10.200000 -102.400002 112 109 104 
-10.500000 -9.625000 -96.000000 60 56 53 
-10.437500 -9.625000 -96.000000 16 12 9 
-6.250000 -9.625000 -96.000000 85 86 81 
12.000000 -10.266666 -102.400002 114 111 106 
-10.437500 -9.687500 -96.000000 48 44 41 
-6.250000 -9.687500 -96.000000 121 122 117 
11.933333 -10.333333 -102.400002 131 128 123 
-10.437500 -9.750000 -96.000000 60 56 53 
-6.312500 -9.750000 -96.000000 12 13 8 
11.933333 -10.400000 -102.400002 124 121 116 
-10.437500 -9.812500 -96.000000 88 84 81 
-11.066667 -10.466666 -102.400002 16 15 13 
-6.312500 -9.812500 -96.000000 45 46 41 
11.933333 -10.466666 -102.400002 119 116 111 
-10.375000 -9.875000 -96.000000 54 53 51 
-6.312500 -9.875000 -96.000000 87 88 83 
11.866667 -10.533334 -102.400002 126 123 118 
11.933333 -10.533334 -102.400002 110 107 102 
-10.375000 -9.937500 -96.000000 95 94 92 
-10.312500 -9.937500 -96.000000 1 0 0 
-6.312500 -9.937500 -96.000000 118 119 114 
11.866667 -10.600000 -102.400002 118 115 110 
-10.312500 -10.000000 -96.000000 46 45 43 
-6.375000 -10.000000 -96.000000 17 18 13 
11.800000 -10.666667 -102.400002 132 129 124 
11.866667 -10.666667 -102.400002 111 108 103 
-10.312500 -10.062500 -96.000000 99 98 96 
-10.250000 -10.062500 -96.000000 1 0 0 
-6.375000 -10.062500 -96.000000 61 62 57 
11.800000 -10.733334 -102.400002 122 119 114 
-10.250000 -10.125000 -96.000000 44 43 41 
-6.375000 -10.125000 -96.000000 109 110 105 
11.800000 -10.800000 -102.400002 111 108 103 
-10.250000 -10.187500 -96.000000 101 97 96 
-10.187500 -10.187500 -96.000000 1 0 0 
-6.375000 -10.187500 -96.000000 139 140 135 
11.733334 -10.866667 -102.400002 133 130 125 
-10.187500 -10.250000 -96.000000 69 66 61 
-6.437500 -10.250000 -96.000000 3 3 1 
11.733334 -10.933333 -102.400002 107 102 98 
-10.187500 -10.312500 -96.000000 86 81 77 
-6.437500 -10.312500 -96.000000 64 64 62 
11.666667 -11.000000 -102.400002 133 128 124 
-10.125000 -10.375000 -96.000000 53 48 44 
-6.437500 -10.375000 -96.000000 126 126 124 
11.666667 -11.066667 -102.400002 122 117 113 
-10.125000 -10.437500 -96.000000 88 83 79 
-6.500000 -10.437500 -96.000000 0 0 0 
11.600000 -11.133333 -102.400002 130 125 121 
11.666667 -11.133333 -102.400002 111 106 102 
-10.062500 -10.500000 -96.000000 36 32 29 
-6.500000 -10.500000 -96.000000 8 8 6 
11.600000 -11.200000 -102.400002 126 121 117 
-10.062500 -10.562500 -96.000000 65 61 58 
-6.500000 -10.562500 -96.000000 71 71 69 
11.600000 -11.266666 -102.400002 119 114 110 
-10.000000 -10.625000 -96.000000 34 33 31 
-6.500000 -10.625000 -96.000000 123 123 121 
11.600000 -11.333333 -102.400002 114 109 105 
-10.000000 -10.687500 -96.000000 52 51 49 
-9.937500 -10.687500 -96.000000 16 16 16 
-6.500000 -10.687500 -96.000000 136 136 134 
11.533334 -11.400000 -102.400002 122 119 114 
-9.937500 -10.750000 -96.000000 56 56 56 
-6.562500 -10.750000 -96.000000 0 0 0 
11.533334 -11.466666 -102.400002 100 97 92 
-9.937500 -10.812500 -96.000000 63 63 63 
-9.875000 -10.812500 -96.000000 10 10 10 
-6.562500 -10.812500 -96.000000 64 64 62 
11.466666 -11.533334 -102.400002 121 118 113 
-9.875000 -10.875000 -96.000000 42 42 42 
-6.562500 -10.875000 -96.000000 125 125 123 
11.400000 -11.600000 -102.400002 135 132 127 
11.466666 -11.600000 -102.400002 105 102 97 
-9.875000 -10.937500 -96.000000 58 58 58 
-6.625000 -10.937500 -96.000000 0 0 0 
11.400000 -11.666667 -102.400002 124 121 116 
-9.875000 -11.000000 -96.000000 95 95 95 
-9.812500 -11.000000 -96.000000 46 46 46 
-6.625000 -11.000000 -96.000000 12 12 10 
11.400000 -11.733334 -102.400002 109 106 101 
-9.812500 -11.062500 -96.000000 61 61 61 
-6.625000 -11.062500 -96.000000 68 68 66 
11.333333 -11.800000 -102.400002 132 129 124 
-9.812500 -11.125000 -96.000000 93 93 93 
-9.750000 -11.125000 -96.000000 39 39 39 
-6.625000 -11.125000 -96.000000 121 121 119 
11.333333 -11.866667 -102.400002 118 115 110 
-9.750000 -11.187500 -96.000000 51 50 48 
-6.687500 -11.187500 -96.000000 0 0 0 
11.266666 -11.933333 -102.400002 128 125 120 
11.333333 -11.933333 -102.400002 104 101 96 
-9.750000 -11.250000 -96.000000 101 97 94 
-9.687500 -11.250000 -96.000000 11 10 6 
-6.687500 -11.250000 -96.000000 61 60 58 
11.266666 -12.000000 -102.400002 119 114 110 
-9.687500 -11.312500 -96.000000 57 54 49 
-6.687500 -11.312500 -96.000000 84 83 81 
11.266666 -12.066667 -102.400002 116 111 107 
-9.687500 -11.375000 -96.000000 100 97 92 
-9.625000 -11.375000 -96.000000 19 18 13 
-6.687500 -11.375000 -96.000000 115 114 112 
11.200000 -12.133333 -102.400002 126 121 117 
-9.625000 -11.437500 -96.000000 49 48 43 
-6.750000 -11.437500 -96.000000 24 23 21 
11.200000 -12.200000 -102.400002 116 111 107 
-9.625000 -11.500000 -96.000000 87 86 81 
-9.562500 -11.500000 -96.000000 14 13 8 
-6.750000 -11.500000 -96.000000 48 47 45 
11.133333 -12.266666 -102.400002 130 127 122 
-9.562500 -11.562500 -96.000000 53 52 47 
-6.750000 -11.562500 -96.000000 82 81 79 
11.133333 -12.333333 -102.400002 121 118 113 
-9.562500 -11.625000 -96.000000 90 89 84 
-9.500000 -11.625000 -96.000000 16 15 11 
-6.750000 -11.625000 -96.000000 118 117 115 
11.133333 -12.400000 -102.400002 111 108 103 
-9.500000 -11.687500 -96.000000 38 37 33 
-6.812500 -11.687500 -96.000000 4 3 1 
11.066667 -12.466666 -102.400002 125 122 117 
-9.500000 -11.750000 -96.000000 101 100 96 
-9.437500 -11.750000 -96.000000 1 0 0 
-6.812500 -11.750000 -96.000000 67 66 64 
11.066667 -12.533334 -102.400002 109 106 101 
-9.437500 -11.812500 -96.000000 56 55 51 
-6.812500 -11.812500 -96.000000 84 83 81 
